NCOLS 78 
NROWS 66 
XLLCORNER -87.5 
YLLCORNER 25 
CELLSIZE 0.0833333333333333 
NODATA_value -9999 
-9999.000000000000000 -9999 -9999 -9999 2.88960790634155 2.91960787773132 -9999 -9999 -9999 -9999 -9999 0.221489489078522 5.43148946762085 5.6514892578125 3.96148943901062 2.79148960113525 -9999 -9999 -9999 -9999 -9999 -9999 -9999 -9999 -9999 -9999 -9999 -9999 -9999 -9999 -9999 -9999 -9999 -9999 -9999 -9999 -9999 -9999 -9999 -9999 -9999 -9999 -9999 -9999 -9999 -9999 -9999 -9999 -9999 -9999 -9999 -9999 -9999 -9999 -9999 -9999 -9999 -9999 -9999 -9999 -9999 -9999 -9999 -9999 -9999 -9999 -9999 -9999 -9999 -9999 -9999 -9999 0.287077903747559 12.6170778274536 18.7192535400391 19.389253616333 20.309253692627 22.7292537689209
-9999 -9999 -9999 6.48949289321899 1.05960786342621 3.01960778236389 7.02960777282715 10.999608039856 15.9796075820923 17.5196075439453 17.7314891815186 14.8514890670776 12.721489906311 10.8514890670776 5.85148954391479 -9999 -9999 -9999 -9999 -9999 -9999 -9999 -9999 -9999 -9999 -9999 -9999 -9999 -9999 -9999 -9999 -9999 -9999 -9999 -9999 -9999 -9999 -9999 -9999 -9999 -9999 -9999 -9999 -9999 -9999 -9999 -9999 -9999 -9999 -9999 -9999 -9999 -9999 -9999 -9999 -9999 -9999 -9999 -9999 -9999 -9999 -9999 -9999 -9999 -9999 -9999 -9999 -9999 -9999 -9999 -9999 -9999 -9999 11.1570777893066 17.5392532348633 18.3992538452148 23.4692535400391 24.5992546081543
2.90949273109436 5.71949291229248 7.92949295043945 11.6694927215576 18.7496070861816 20.4796085357666 23.4196071624756 23.8996086120605 23.9496078491211 23.3996086120605 23.931489944458 24.4114894866943 23.8314895629883 24.1614894866943 24.3114891052246 22.4514904022217 6.863205909729 -9999 -9999 -9999 -9999 -9999 -9999 -9999 -9999 -9999 -9999 -9999 -9999 -9999 -9999 -9999 -9999 -9999 -9999 -9999 -9999 -9999 -9999 -9999 -9999 -9999 -9999 -9999 -9999 -9999 -9999 -9999 -9999 -9999 -9999 -9999 -9999 -9999 -9999 -9999 -9999 -9999 -9999 -9999 -9999 -9999 -9999 -9999 -9999 -9999 -9999 -9999 -9999 -9999 -9999 -9999 -9999 10.9470777511597 17.0892543792725 17.9292545318604 24.2292537689209 23.9492530822754
13.6375007629395 16.6275005340576 19.1175003051758 21.4475021362305 23.8106880187988 26.9606876373291 26.9106864929199 25.4506874084473 26.6206874847412 25.570686340332 27.1805896759033 26.5205898284912 28.3105888366699 29.8605899810791 30.7505893707275 29.950590133667 24.4100112915039 22.1800117492676 15.030011177063 1.31001126766205 1.15001130104065 1.03001129627228 -9999 -9999 -9999 -9999 -9999 -9999 -9999 -9999 -9999 -9999 -9999 -9999 -9999 -9999 -9999 -9999 -9999 -9999 -9999 -9999 -9999 -9999 -9999 -9999 -9999 -9999 -9999 -9999 -9999 -9999 -9999 -9999 -9999 -9999 -9999 -9999 -9999 -9999 -9999 -9999 -9999 -9999 -9999 -9999 -9999 -9999 -9999 -9999 -9999 -9999 -9999 6.70505619049072 16.541088104248 17.7810878753662 22.8210887908936 24.9810886383057
23.7575016021729 26.9475021362305 28.5875015258789 30.0675010681152 28.880687713623 34.7706871032715 55.4106864929199 79.2506866455078 65.6606903076172 52.3006858825684 47.3105888366699 43.4905891418457 42.6305885314941 39.9205894470215 37.0405883789062 35.0405883789062 31.6800117492676 29.0200119018555 28.7600116729736 26.9500122070312 18.1400108337402 6.77001142501831 0.240011289715767 0.68964034318924 -9999 -9999 -9999 -9999 -9999 -9999 -9999 -9999 -9999 -9999 -9999 -9999 -9999 -9999 -9999 -9999 -9999 0.123121872544289 -9999 -9999 -9999 -9999 -9999 -9999 -9999 -9999 -9999 -9999 -9999 -9999 -9999 -9999 -9999 -9999 -9999 -9999 -9999 -9999 -9999 -9999 -9999 -9999 -9999 -9999 -9999 -9999 -9999 -9999 -9999 -9999 15.5110883712769 15.1110877990723 19.6710891723633 21.3710880279541
27.247501373291 28.7875003814697 30.5175018310547 33.8775024414062 39.630687713623 55.9606857299805 95.1906890869141 116.21068572998 100.96068572998 85.3906860351562 62.1805877685547 52.9405899047852 49.2005882263184 48.2905883789062 42.9305877685547 39.6705894470215 33.1200103759766 30.9200115203857 31.9800109863281 29.4500122070312 22.820011138916 20.7100105285645 14.2200117111206 1.05964040756226 -9999 -9999 -9999 -9999 -9999 -9999 -9999 -9999 -9999 -9999 -9999 -9999 -9999 -9999 2.38312196731567 3.72312188148499 3.43312191963196 3.54312181472778 1.59559428691864 0.0155943296849728 -9999 -9999 -9999 -9999 -9999 -9999 -9999 -9999 -9999 -9999 -9999 -9999 -9999 -9999 -9999 -9999 -9999 -9999 -9999 -9999 -9999 -9999 -9999 -9999 -9999 -9999 -9999 -9999 -9999 -9999 12.7010879516602 16.7810878753662 20.3710880279541 22.791088104248
33.1875 29.7575016021729 30.5575008392334 35.9775009155273 57.6906890869141 91.9706878662109 138.88069152832 141.260681152344 121.320686340332 111.040687561035 96.2005920410156 82.3205871582031 62.2905883789062 59.4905891418457 54.6605911254883 49.0005912780762 37.3400115966797 33.4400100708008 33.760009765625 32.1900100708008 26.8900108337402 23.6500110626221 22.2200107574463 14.8496398925781 -9999 -9999 -9999 -9999 -9999 -9999 -9999 -9999 -9999 -9999 -9999 -9999 -9999 -9999 3.75312185287476 5.71312189102173 6.99312210083008 4.84312200546265 3.08559441566467 2.54559421539307 0.385594338178635 -9999 -9999 -9999 -9999 -9999 -9999 -9999 -9999 -9999 -9999 -9999 -9999 -9999 -9999 -9999 -9999 -9999 -9999 -9999 -9999 -9999 -9999 -9999 -9999 -9999 -9999 -9999 -9999 -9999 7.5710883140564 17.541088104248 19.0610885620117 21.7710876464844
32.2574996948242 32.5275001525879 43.4575004577637 62.6175003051758 129.830688476562 164.500686645508 166.150680541992 156.770690917969 135.490692138672 124.330688476562 111.790588378906 93.5405883789062 73.9505920410156 71.5205917358398 65.8705902099609 55.9505882263184 39.4000129699707 38.8400115966797 37.5500106811523 35.8300094604492 30.6000118255615 26.3500118255615 24.5600109100342 21.2796401977539 7.37964057922363 0.929640352725983 -9999 -9999 -9999 -9999 -9999 -9999 -9999 -9999 -9999 -9999 2.26312184333801 0.463121861219406 4.95312166213989 4.90312194824219 8.0631217956543 6.86312198638916 5.65559434890747 4.86559438705444 3.00559425354004 1.61559438705444 -9999 -9999 -9999 -9999 -9999 -9999 -9999 -9999 -9999 -9999 -9999 -9999 -9999 -9999 -9999 -9999 -9999 -9999 -9999 -9999 -9999 -9999 -9999 -9999 -9999 -9999 -9999 -9999 0.631088256835938 15.1110877990723 19.8810882568359 21.9910888671875
47.8274993896484 68.6774978637695 114.17749786377 149.407501220703 223.860687255859 205.680694580078 196.260681152344 185.980682373047 164.610687255859 153.330688476562 141.760589599609 130.560592651367 108.040588378906 96.0105895996094 80.9005889892578 61.4205894470215 45.1600112915039 43.0000114440918 41.3500099182129 38.4400100708008 34.0900115966797 30.1500110626221 27.8500118255615 24.1196403503418 9.6196403503418 6.51964044570923 -9999 -9999 -9999 -9999 -9999 -9999 1.68716478347778 4.48716497421265 6.15716457366943 9.4571647644043 10.7331218719482 12.1931219100952 13.4831218719482 12.2431221008301 11.1131219863892 10.8631219863892 10.925594329834 10.135594367981 7.76559448242188 6.62559413909912 3.00559425354004 -9999 -9999 -9999 -9999 -9999 -9999 -9999 -9999 -9999 -9999 -9999 -9999 -9999 -9999 -9999 -9999 -9999 -9999 -9999 -9999 -9999 -9999 -9999 -9999 -9999 -9999 -9999 -9999 10.1610879898071 19.3310890197754 20.0810890197754
57.5345458984375 72.3745422363281 145.874542236328 210.854553222656 234.195098876953 226.095092773438 217.765090942383 208.095092773438 184.465087890625 172.54508972168 159.637985229492 148.077987670898 122.547981262207 109.577980041504 87.9779815673828 60.8079795837402 47.3062324523926 44.2062301635742 41.8662300109863 39.8462333679199 32.0962333679199 30.3362312316895 28.3262310028076 25.3413219451904 12.5413217544556 3.36132192611694 0.291322022676468 -9999 -9999 -9999 1.64999997615814 2.25 3.92000007629395 9.36999988555908 12.6099996566772 14.6400003433228 15.3830766677856 17.4930763244629 17.0230770111084 15.9130764007568 13.2630767822266 13.5730762481689 13.8274984359741 13.0774984359741 9.83749866485596 7.82749843597412 5.02749824523926 2.51749849319458 -9999 -9999 -9999 -9999 -9999 -9999 -9999 -9999 -9999 -9999 -9999 -9999 -9999 -9999 -9999 -9999 -9999 -9999 -9999 -9999 -9999 -9999 -9999 -9999 -9999 -9999 -9999 2.76862740516663 19.8586273193359 19.9786281585693
67.5945434570312 78.0145492553711 168.374542236328 256.784545898438 263.785095214844 259.155090332031 248.055099487305 237.705093383789 212.675094604492 199.235092163086 183.397979736328 169.407974243164 137.247985839844 121.577980041504 98.3779830932617 66.8279800415039 59.3362312316895 45.4662322998047 42.8262329101562 40.1162300109863 30.0362319946289 30.6362323760986 29.7862319946289 26.221321105957 12.7213220596313 7.35132217407227 10.0413217544556 9.56132221221924 1.8013219833374 2.53999996185303 3.1800000667572 5.76999998092651 10.1899995803833 15.1700000762939 16.7099990844727 18.0599994659424 18.8230762481689 19.7930755615234 19.7130756378174 18.8230762481689 16.2430763244629 16.4830760955811 16.1374988555908 15.0174980163574 12.0574989318848 9.7574987411499 8.11749839782715 6.40749835968018 2.3181836605072 -9999 -9999 -9999 -9999 -9999 -9999 -9999 -9999 -9999 -9999 -9999 -9999 -9999 -9999 -9999 -9999 -9999 -9999 -9999 -9999 -9999 -9999 -9999 -9999 -9999 -9999 -9999 20.2986278533936 21.1786270141602
76.1545486450195 104.90454864502 243.214538574219 300.304534912109 316.445098876953 314.465087890625 302.715087890625 286.555084228516 253.285095214844 235.065093994141 215.917984008789 197.697982788086 158.337982177734 140.377975463867 124.687980651855 105.847984313965 75.4062347412109 58.3562316894531 43.5662307739258 41.7862319946289 31.5062313079834 31.4262313842773 29.9562320709229 23.7613220214844 12.4413223266602 11.6913223266602 12.3913221359253 11.5113220214844 8.33132171630859 4.94999980926514 8.86999988555908 11.9899997711182 16.7199993133545 18.7299995422363 19.75 21.3500003814697 21.4630756378174 22.0830764770508 21.8630771636963 20.8330764770508 19.1630764007568 19.5430755615234 18.5974979400635 16.627498626709 13.1874980926514 11.0374984741211 9.21749877929688 7.81749868392944 2.29818367958069 -9999 -9999 -9999 -9999 -9999 -9999 -9999 -9999 -9999 -9999 -9999 -9999 -9999 -9999 -9999 -9999 -9999 -9999 -9999 -9999 -9999 -9999 -9999 -9999 -9999 -9999 -9999 19.0486278533936 21.5586280822754
302.474548339844 369.584533691406 410.754547119141 450.834533691406 501.045104980469 556.7451171875 619.215087890625 520.415100097656 394.095092773438 349.775085449219 317.617980957031 278.827972412109 222.497985839844 197.867980957031 173.487976074219 147.467987060547 92.3262329101562 74.7162322998047 60.1162300109863 47.9662322998047 38.13623046875 34.4062309265137 27.2662315368652 23.2313213348389 28.0713214874268 28.221321105957 27.3313217163086 25.471321105957 18.701322555542 14.539999961853 17.2299995422363 21.5900001525879 26.4300003051758 27.2000007629395 26.6000003814697 27.2999992370605 24.8230762481689 24.2030754089355 23.0730762481689 22.3730754852295 20.7530765533447 19.4530754089355 18.3974990844727 17.627498626709 14.9774980545044 14.587498664856 13.0174980163574 10.9474983215332 4.11818361282349 2.39818358421326 0.868183672428131 -9999 -9999 -9999 -9999 -9999 -9999 -9999 -9999 -9999 -9999 -9999 -9999 -9999 -9999 -9999 -9999 -9999 -9999 -9999 -9999 -9999 -9999 -9999 -9999 -9999 7.61862754821777 20.1286277770996
444.044555664062 501.584533691406 548.784545898438 568.884521484375 598.615112304688 673.035095214844 673.655090332031 528.885070800781 429.995086669922 396.835083007812 362.087982177734 329.617980957031 265.537994384766 237.967987060547 213.487976074219 188.43798828125 128.946228027344 93.9262313842773 68.5562286376953 59.1062316894531 49.0862312316895 47.7262306213379 44.2162322998047 37.9113235473633 30.7713222503662 29.721321105957 28.8813228607178 27.7613220214844 25.0113220214844 24.6700000762939 25.5499992370605 26.3500003814697 28.2600002288818 30.3899993896484 30.3999996185303 30.6299991607666 26.903076171875 25.5330772399902 24.9130764007568 23.6730766296387 21.2630767822266 20.653076171875 18.8074989318848 18.5474987030029 16.3474979400635 15.5774984359741 14.0074987411499 12.8574981689453 5.98818349838257 4.34818363189697 2.64818358421326 2.08818364143372 -9999 -9999 -9999 -9999 -9999 -9999 -9999 -9999 -9999 -9999 -9999 -9999 -9999 -9999 -9999 -9999 -9999 -9999 -9999 -9999 -9999 -9999 -9999 -9999 -9999 17.8486270904541
752.9345703125 739.844543457031 710.254516601562 684.334533691406 685.575073242188 746.065124511719 727.705078125 554.715087890625 452.565093994141 417.465087890625 385.657989501953 357.427978515625 303.177978515625 275.16796875 249.337982177734 225.357986450195 176.516235351562 147.526229858398 115.696228027344 84.1962280273438 68.2262344360352 60.7962303161621 55.4162330627441 52.2313232421875 41.4313201904297 34.7513236999512 30.5213222503662 29.9913215637207 29.031322479248 28.3500003814697 26.6599998474121 27.3600006103516 30.5799999237061 32.75 32.5200004577637 31.5100002288818 27.8630771636963 26.4230766296387 25.4630756378174 24.3830757141113 22.403076171875 21.1930770874023 19.377498626709 18.4874992370605 17.377498626709 16.7174987792969 15.0574989318848 13.3674983978271 7.90818357467651 6.12818384170532 4.82818365097046 3.96818375587463 -9999 -9999 -9999 -9999 -9999 -9999 -9999 -9999 -9999 -9999 -9999 -9999 -9999 -9999 -9999 -9999 -9999 -9999 0.428747892379761 1.77874791622162 -9999 -9999 -9999 -9999 -9999 8.37862777709961
1036.28454589844 951.324523925781 861.084533691406 803.574523925781 773.115112304688 819.535095214844 682.465087890625 571.685119628906 468.465087890625 432.805084228516 401.617980957031 376.757995605469 328.087982177734 304.197967529297 278.41796875 254.267974853516 210.606231689453 189.876235961914 167.096237182617 144.746231079102 95.2462310791016 79.9062347412109 72.3962326049805 68.2613220214844 45.221321105957 40.971321105957 34.8313217163086 32.0213203430176 31.5613212585449 30.0300006866455 28.4899997711182 29.2800006866455 32.7099990844727 33.25 32.2299995422363 31.2399997711182 28.6230754852295 27.4930763244629 26.3130760192871 25.2730770111084 23.8130760192871 22.3930759429932 21.7874984741211 20.2774982452393 17.9774990081787 17.3874988555908 14.8174982070923 12.127498626709 9.80818367004395 8.54818344116211 6.43818378448486 4.7781834602356 1.66818368434906 -9999 -9999 -9999 -9999 -9999 -9999 -9999 -9999 -9999 -9999 -9999 -9999 -9999 -9999 -9999 -9999 -9999 -9999 2.17874789237976 -9999 -9999 -9999 -9999 -9999 -9999
1420.88537597656 1255.17529296875 1093.72534179688 1010.15533447266 855.95166015625 761.321655273438 662.671630859375 589.761657714844 491.551635742188 454.751617431641 423.870422363281 397.480407714844 352.480407714844 332.840423583984 314.530426025391 295.720397949219 254.530487060547 231.770477294922 211.100479125977 194.550476074219 169.870483398438 149.57048034668 129.480484008789 108.342300415039 53.8822975158691 45.6022987365723 40.0522956848145 37.1822967529297 35.2522964477539 34.7136497497559 34.063648223877 34.9636497497559 35.6836471557617 35.4036483764648 34.7136497497559 32.8836479187012 29.9224987030029 29.3724994659424 27.8024997711182 26.9424991607666 26.5224990844727 25.4224987030029 24.2149982452393 23.0749988555908 19.4449996948242 18.144998550415 15.8949995040894 13.2949991226196 12.3624992370605 10.2724990844727 8.96249866485596 7.66249895095825 2.78249883651733 2.39249897003174 2.71249890327454 2.49504590034485 -9999 -9999 -9999 -9999 -9999 -9999 -9999 -9999 -9999 -9999 -9999 -9999 -9999 -9999 -9999 -9999 0.0751709640026093 -9999 -9999 -9999 -9999 -9999
1559.01538085938 1358.025390625 1160.68530273438 1048.79541015625 837.711608886719 748.051635742188 659.751647949219 593.671630859375 501.951629638672 465.061645507812 433.720397949219 406.42041015625 361.500396728516 342.290405273438 324.850402832031 307.450408935547 272.50048828125 250.750473022461 228.460479736328 208.600479125977 181.130477905273 167.930480957031 150.040481567383 119.362297058105 58.1522979736328 48.4622955322266 46.5922966003418 45.1922988891602 38.5222969055176 40.0436477661133 40.1036491394043 40.4736480712891 38.0836486816406 37.1036491394043 35.6736488342285 34.2136497497559 30.5224990844727 29.0224990844727 28.4424991607666 28.6724987030029 28.3624992370605 26.5924987792969 25.3449993133545 23.9849987030029 20.894998550415 19.3349990844727 17.9149990081787 15.1149988174438 14.0924987792969 11.8224992752075 10.2724990844727 9.08249855041504 4.82249879837036 4.92249870300293 4.07249879837036 3.0750458240509 0.165045872330666 -9999 -9999 -9999 -9999 -9999 -9999 -9999 -9999 -9999 -9999 -9999 -9999 -9999 -9999 -9999 -9999 -9999 -9999 -9999 -9999 -9999
1634.775390625 1367.96533203125 1177.15539550781 1039.90539550781 825.231628417969 738.011657714844 656.331604003906 595.741638183594 508.841644287109 473.011627197266 441.590423583984 412.200408935547 367.900421142578 348.730407714844 331.260406494141 315.440399169922 282.930480957031 264.830474853516 243.720474243164 221.780487060547 187.990478515625 175.920486450195 163.340484619141 145.77229309082 97.2322998046875 75.6122970581055 62.3222961425781 58.8122978210449 50.912296295166 45.6636505126953 41.0236473083496 41.6936492919922 40.2336502075195 38.5036506652832 37.2936477661133 35.3536491394043 32.2324981689453 30.9324989318848 29.9925003051758 29.0224990844727 29.3724994659424 27.7224998474121 25.9549999237061 24.5749988555908 22.5849990844727 21.394998550415 19.4049987792969 17.8849983215332 16.0124988555908 13.3824987411499 12.2824993133545 9.84249877929688 7.37249898910522 7.21249914169312 6.41249895095825 5.27504587173462 1.29504585266113 -9999 -9999 -9999 -9999 -9999 -9999 -9999 -9999 -9999 -9999 -9999 -9999 -9999 -9999 -9999 -9999 -9999 -9999 -9999 -9999 -9999
1615.7353515625 1348.07531738281 1158.71533203125 1016.97534179688 817.341613769531 738.691650390625 665.831604003906 607.091613769531 520.341613769531 483.781616210938 451.610412597656 421.950408935547 376.550415039062 356.640411376953 339.490417480469 324.070404052734 292.010467529297 275.910491943359 257.73046875 236.150482177734 197.310485839844 183.840484619141 172.180480957031 158.962295532227 112.372299194336 92.5422973632812 81.0522994995117 72.8122940063477 56.2422981262207 50.7036476135254 45.8936500549316 44.2836494445801 41.7936477661133 40.0236473083496 39.7236480712891 38.5336494445801 34.4624977111816 33.6025009155273 31.5324993133545 30.4825000762939 29.9624996185303 28.6824989318848 27.8049983978271 27.0149993896484 22.6049995422363 21.9149990081787 21.7849998474121 19.3449993133545 18.0424995422363 15.712498664856 13.792498588562 11.5124988555908 10.0124988555908 8.99249935150146 7.1324987411499 5.17504596710205 2.94504594802856 0.845045864582062 -9999 -9999 -9999 -9999 -9999 -9999 -9999 -9999 -9999 -9999 -9999 -9999 -9999 -9999 -9999 -9999 -9999 -9999 -9999 -9999
1435.775390625 1277.1953125 1135.275390625 1011.32537841797 820.16162109375 758.931640625 699.501647949219 647.41162109375 558.631652832031 521.551635742188 487.180419921875 453.940399169922 400.060424804688 377.250396728516 358.000396728516 340.910400390625 311.010467529297 294.110473632812 277.830474853516 259.50048828125 217.790481567383 199.300476074219 186.880477905273 175.132293701172 139.312301635742 117.742294311523 121.022300720215 111.43229675293 83.5822982788086 63.1636505126953 51.8936500549316 49.2136497497559 47.9036483764648 47.0836486816406 44.4536476135254 42.5536499023438 37.8125 35.5524978637695 35.7724990844727 34.8924980163574 31.4324989318848 31.3424987792969 29.625 28.3449993133545 25.0149993896484 23.5549983978271 22.1749992370605 20.9349994659424 19.9924983978271 19.2924995422363 16.8724994659424 13.6324987411499 10.4824991226196 8.1924991607666 5.80249881744385 3.65504598617554 1.22504591941833 0.355045884847641 -9999 -9999 -9999 -9999 -9999 -9999 -9999 -9999 -9999 -9999 -9999 -9999 -9999 -9999 -9999 -9999 -9999 -9999 -9999 0.118681639432907
1434.38537597656 1278.92529296875 1136.63537597656 1018.92535400391 839.741638183594 775.66162109375 722.561645507812 673.761657714844 584.461608886719 545.581604003906 510.640411376953 475.830413818359 417.880401611328 394.340423583984 370.67041015625 352.060424804688 319.210479736328 304.720489501953 288.440490722656 270.460479736328 230.870483398438 212.260482788086 197.32048034668 186.042297363281 166.27229309082 152.882293701172 139.18229675293 126.922294616699 97.7122955322266 75.2636489868164 56.7036476135254 51.2536506652832 51.4036483764648 50.8636474609375 47.7236480712891 44.7436485290527 38.5524978637695 35.7224998474121 35.752498626709 36.2124977111816 34.2625007629395 32.1925010681152 30.2549991607666 29.2849998474121 25.9149990081787 24.6949996948242 23.4449996948242 22.0149993896484 20.9324989318848 18.4924983978271 16.9724998474121 13.4924993515015 10.1524991989136 7.80249881744385 6.3324990272522 3.97504591941833 1.97504591941833 0.80504584312439 -9999 -9999 -9999 -9999 -9999 -9999 -9999 -9999 -9999 -9999 -9999 -9999 -9999 -9999 -9999 -9999 -9999 -9999 -9999 -9999
1457.24475097656 1300.31469726562 1167.27478027344 1049.87475585938 871.554382324219 806.484375 747.884399414062 701.724365234375 615.684387207031 579.204406738281 543.630859375 505.790863037109 439.890869140625 412.590850830078 390.960845947266 371.100860595703 332.934997558594 315.105010986328 299.024993896484 282.385009765625 244.575012207031 224.365005493164 207.625 196.544967651367 176.174957275391 165.154968261719 153.734970092773 141.744964599609 112.144966125488 88.8624954223633 63.9025001525879 55.1024971008301 53.4324989318848 52.5124969482422 50.442497253418 48.1525001525879 40.9300003051758 34.7100028991699 36.370002746582 35.0300025939941 34.4700012207031 32.6000022888184 30.3374977111816 29.957498550415 27.1974983215332 25.4474983215332 24.1474990844727 23.0074977874756 20.7600002288818 18.4200000762939 16.1499996185303 14.9200000762939 11.4899997711182 8.69999980926514 7.49999952316284 4.6591272354126 2.74912738800049 1.54912745952606 -9999 -9999 -9999 -9999 -9999 -9999 -9999 -9999 -9999 -9999 -9999 -9999 -9999 -9999 -9999 -9999 -9999 -9999 -9999 -9999
1505.86474609375 1347.46472167969 1214.54479980469 1097.29479980469 907.404418945312 839.684387207031 780.284423828125 729.964416503906 658.644409179688 621.404418945312 581.270874023438 543.570861816406 473.030853271484 443.710845947266 418.000854492188 393.310852050781 348.415008544922 329.705017089844 312.024993896484 295.325012207031 259.355010986328 237.755004882812 217.835006713867 203.854965209961 184.01496887207 174.0849609375 163.064956665039 151.744964599609 122.364959716797 103.902496337891 76.3125 58.3724975585938 56.7924995422363 55.4025001525879 53.6024971008301 50.8524971008301 43.2800025939941 37.1400032043457 37.6400032043457 33.8800010681152 34.7800025939941 32.9900016784668 31.6174983978271 30.7574977874756 28.1374988555908 26.5674991607666 24.7574977874756 23.8374977111816 20.0499992370605 19.0799999237061 17.2799987792969 15.5799999237061 12.2599992752075 9.57999992370605 7.59999942779541 4.45912742614746 2.82912731170654 1.86912739276886 -9999 -9999 -9999 -9999 -9999 -9999 -9999 -9999 -9999 -9999 -9999 -9999 -9999 -9999 -9999 -9999 -9999 -9999 -9999 -9999
2306.134765625 1648.65478515625 1385.86474609375 1264.19470214844 1049.46435546875 968.044372558594 901.124389648438 845.454406738281 756.894409179688 721.414367675781 689.140869140625 649.000854492188 577.680847167969 542.960876464844 511.260864257812 480.320861816406 418.295013427734 390.045013427734 364.485015869141 342.085021972656 301.89501953125 281.195007324219 260.494995117188 238.454956054688 200.694961547852 188.704956054688 178.754959106445 169.534957885742 141.954956054688 120.30249786377 100.162498474121 81.8424987792969 61.9025001525879 63.4925003051758 60.9225006103516 58.7224998474121 49.5200004577637 43.2900009155273 37.8300018310547 37.2300033569336 37 36.4400024414062 34.3574981689453 32.6875 30.5274982452393 28.9374980926514 27.2374992370605 25.1574974060059 21.7799987792969 19.6299991607666 18.6199989318848 18.2399997711182 13.3299999237061 11.5799999237061 8.09999942779541 4.33912754058838 2.5891273021698 0.629127383232117 -9999 -9999 -9999 -9999 -9999 -9999 -9999 -9999 -9999 -9999 -9999 -9999 -9999 -9999 -9999 -9999 -9999 -9999 -9999 -9999
2573.03466796875 2334.24462890625 1606.24475097656 1395.27478027344 1163.59436035156 1067.30444335938 987.294372558594 926.00439453125 830.904418945312 788.374389648438 752.690856933594 718.36083984375 645.450866699219 608.490844726562 574.010864257812 542.280883789062 477.175018310547 445.975006103516 415.695007324219 386.265014648438 338.165008544922 316.585021972656 294.744995117188 273.214965820312 226.324966430664 205.284957885742 189.074966430664 176.544967651367 152.854965209961 130.832504272461 110.132499694824 91.5224990844727 64.6324996948242 65.6624984741211 64.7624969482422 61.9225006103516 54.870002746582 46.9600028991699 48.3800010681152 43.0900001525879 36.6100006103516 37.9700012207031 36.8574981689453 34.2474975585938 31.5874977111816 29.8474979400635 27.8274974822998 26.1974983215332 22.7399997711182 21.6700000762939 19.6800003051758 18.8400001525879 14.1899995803833 12.1199998855591 8.67999935150146 5.17912721633911 2.27912735939026 -9999 -9999 -9999 -9999 -9999 -9999 -9999 -9999 -9999 -9999 -9999 -9999 -9999 -9999 -9999 -9999 -9999 -9999 -9999 -9999 -9999
2596.95483398438 2605.21484375 2350.3447265625 1976.16479492188 1397.66442871094 1238.25439453125 1135.68444824219 1051.96435546875 922.354370117188 867.654418945312 822.340881347656 786.590881347656 721.040832519531 681.780883789062 644.760864257812 611.740844726562 544.554992675781 511.225006103516 478.585021972656 446.214996337891 385.744995117188 357.725006103516 334.445007324219 312.814971923828 260.924957275391 235.324966430664 212.214965820312 192.554962158203 164.104965209961 147.63249206543 124.762496948242 102.212501525879 68.7525024414062 67.692497253418 68.3024978637695 65.0325012207031 58.4400024414062 51.1300010681152 51.4800033569336 46.0900001525879 36.3900032043457 36.560001373291 37.4874992370605 35.9674987792969 32.4375 31.0874977111816 29.3574981689453 26.6374988555908 22.9099998474121 21.8999996185303 20.5499992370605 20.0699996948242 14.4200000762939 11.7399997711182 8.98999977111816 5.03912734985352 1.90912735462189 -9999 -9999 -9999 -9999 -9999 -9999 -9999 -9999 -9999 -9999 -9999 -9999 -9999 -9999 -9999 -9999 -9999 -9999 -9999 -9999 -9999
2602.884765625 2631.60473632812 2657.48486328125 2686.91479492188 2635.96435546875 2427.38427734375 2103.49438476562 1770.30444335938 1126.74438476562 995.5244140625 913.40087890625 861.230834960938 801.050842285156 765.870849609375 728.600830078125 696.310852050781 629.035034179688 591.39501953125 556.89501953125 523.465026855469 455.964996337891 421.865020751953 389.985015869141 361.234954833984 304.244964599609 275.314971923828 249.76496887207 224.814956665039 180.634963989258 164.072494506836 144.682495117188 119.922500610352 79.4124984741211 70.7924957275391 70.3724975585938 68.0325012207031 60.7600021362305 53.6400032043457 53.1500015258789 45.9900016784668 38.7400016784668 37.8800010681152 38.627498626709 37.5774993896484 34.6074981689453 32.4074974060059 30.0874977111816 27.5574989318848 24.3599987030029 23.3099994659424 22.2999992370605 20.6000003814697 15.0499992370605 11.6499996185303 9.08999919891357 5.88912725448608 0.309127420186996 -9999 -9999 -9999 -9999 -9999 -9999 -9999 -9999 -9999 -9999 -9999 -9999 -9999 -9999 -9999 -9999 -9999 -9999 -9999 -9999 -9999
2707.8466796875 2723.50659179688 2754.79663085938 2769.32666015625 2767.75463867188 2791.75463867188 2833.49462890625 2869.45483398438 2893.4248046875 2879.33471679688 2168.99731445312 1210.447265625 986.377319335938 942.387329101562 912.047302246094 877.297302246094 840.240539550781 807.390563964844 766.370544433594 717.670532226562 629.660522460938 582.860534667969 540.110534667969 501.320861816406 416.490844726562 375.870849609375 340.180847167969 305.520843505859 245.640853881836 219.675491333008 194.195495605469 169.345489501953 114.385498046875 90.2054977416992 81.2754974365234 74.4254989624023 66.7674942016602 60.7974967956543 55.9074974060059 49.9774971008301 45.0374984741211 43.0874977111816 41.0250015258789 40.3150024414062 37.0250015258789 35.3650016784668 33.0750007629395 30.7350006103516 26.5424976348877 25.8124980926514 24.2324981689453 21.9624977111816 16.5924987792969 13.8624982833862 10.3624982833862 7.65947961807251 -9999 -9999 -9999 -9999 -9999 -9999 -9999 -9999 -9999 -9999 -9999 -9999 -9999 -9999 -9999 -9999 -9999 -9999 -9999 -9999 -9999 -9999
2755.48657226562 2768.32666015625 2783.5966796875 2805.4765625 2825.83471679688 2822.1748046875 2821.24462890625 2864.90478515625 2923.86474609375 2936.33471679688 2943.75732421875 2634.57739257812 1402.03735351562 1196.26733398438 1122.32727050781 1074.20727539062 1009.67053222656 950.820556640625 886.900573730469 824.490539550781 724.570556640625 681.910522460938 639.020568847656 591.140869140625 490.950836181641 445.010864257812 400.290863037109 358.380859375 282.050842285156 252.145492553711 226.475494384766 201.295501708984 142.145492553711 115.895500183105 92.3054962158203 79.2754974365234 68.817497253418 63.7474975585938 58.3374977111816 51.9874954223633 46.007495880127 45.4274978637695 43.9250030517578 42.2150001525879 38.0250015258789 35.7750015258789 33.125 31.4650020599365 27.8124980926514 26.1824989318848 24.7624988555908 22.8524971008301 17.3624973297119 14.8524980545044 11.5524978637695 8.73948001861572 -9999 -9999 -9999 -9999 -9999 -9999 -9999 -9999 -9999 -9999 -9999 -9999 -9999 -9999 -9999 -9999 -9999 -9999 -9999 -9999 -9999 -9999
2800.87646484375 2824.36645507812 2838.82666015625 2846.88647460938 2871.96484375 2871.97485351562 2871.97485351562 2874.8046875 2929.44482421875 2969.61474609375 2983.97729492188 2986.80737304688 2986.0673828125 2801.1171875 2566.79736328125 2280.32739257812 1376.89050292969 1191.84057617188 1057.57055664062 942.750549316406 806.590576171875 757.530517578125 713.340576171875 665.0908203125 560.630859375 505.220855712891 456.530853271484 408.840850830078 320.080841064453 281.485504150391 252.975494384766 227.30549621582 173.895492553711 141.035491943359 112.96549987793 93.7954940795898 76.0074996948242 66.3074951171875 62.7774963378906 53.877498626709 47.6374969482422 47.627498626709 45.625 43.1050033569336 40.0050010681152 36.7250022888184 35.0650024414062 32.625 28.4624977111816 27.5524978637695 25.7824974060059 23.9124984741211 17.942497253418 14.3024978637695 11.1124982833862 7.80947971343994 -9999 -9999 3.05947947502136 0.309479564428329 -9999 -9999 -9999 -9999 -9999 -9999 -9999 -9999 -9999 -9999 -9999 -9999 -9999 -9999 -9999 -9999 -9999 -9999
2831.62646484375 2849.37646484375 2870.20654296875 2886.16650390625 2913.24462890625 2912.96484375 2920.47485351562 2926.75463867188 2915.52465820312 2958.61474609375 2999.20727539062 3030.83740234375 3048.16723632812 3078.79736328125 3092.20727539062 3102.75732421875 2933.310546875 2346.23046875 1574.45056152344 1199.94055175781 932.890563964844 852.710571289062 788.090576171875 734.490844726562 623.40087890625 568.3408203125 517.230834960938 459.410858154297 360.420837402344 316.215484619141 275.785491943359 245.46549987793 195.495498657227 169.245498657227 136.975494384766 109.745498657227 80.6974945068359 72.8274993896484 63.5274963378906 58.3974952697754 50.877498626709 51.0774955749512 48.375 46.6650009155273 40.5450019836426 38.9050025939941 36.8050003051758 34.0950012207031 29.752498626709 28.6624984741211 26.6024971008301 24.9824981689453 17.9524974822998 13.7124977111816 10.0024976730347 6.66947937011719 -9999 -9999 0.779479563236237 3.52947950363159 1.71947956085205 -9999 -9999 -9999 -9999 -9999 -9999 -9999 -9999 -9999 -9999 -9999 -9999 -9999 -9999 -9999 -9999 -9999
2871.27661132812 2899.3466796875 2934.36645507812 2962.19653320312 2984.5146484375 2978.45483398438 2984.49462890625 2986.78466796875 3011.32470703125 3012.31469726562 3000.33740234375 3000.59741210938 3069.07739257812 3103.5673828125 3129.16723632812 3143.79736328125 3177.96044921875 3182.32055664062 3187.810546875 3170.88061523438 2010.28051757812 1222.310546875 1038.48059082031 911.140869140625 736.320861816406 669.010864257812 603.890869140625 539.200866699219 404.950836181641 352.495483398438 304.255493164062 267.935485839844 214.295501708984 192.205490112305 168.825500488281 138.515502929688 94.6574935913086 79.3974990844727 69.4874954223633 64.8774948120117 59.7474975585938 56.2274971008301 52.375 48.9449996948242 44.7150001525879 42.0850028991699 39.495002746582 36.9550018310547 33.2124977111816 31.4124984741211 28.7024974822998 26.0924987792969 19.7224979400635 15.0724983215332 11.5224981307983 9.37947940826416 1.42947959899902 -9999 -9999 5.639479637146 0.539479553699493 -9999 -9999 -9999 -9999 -9999 -9999 -9999 -9999 -9999 -9999 -9999 -9999 -9999 -9999 -9999 -9999 -9999
2849.2265625 2896.03662109375 2938.52661132812 2967.46655273438 3000.40478515625 3019.69482421875 3017.20483398438 3016.82470703125 3043.54467773438 3051.85473632812 3058.28735351562 3040.70727539062 3037.7373046875 3089.54736328125 3135.9873046875 3154.79736328125 3184.72045898438 3189.1904296875 3200.560546875 3207.560546875 3021.24047851562 2119.99047851562 1439.68054199219 1092.07080078125 801.160827636719 725.810852050781 657.420837402344 587.61083984375 429.790863037109 370.455505371094 318.905487060547 273.515502929688 219.46549987793 197.185501098633 174.385498046875 144.345489501953 104.067497253418 84.5974960327148 76.2474975585938 67.2674942016602 61.5374984741211 58.0274963378906 53.2550010681152 50.8650016784668 46.875 44.2250022888184 41.1750030517578 39.0650024414062 34.5824966430664 32.442497253418 30.2424983978271 27.8524971008301 20.8724975585938 16.8124980926514 13.1824979782104 10.9894800186157 5.62947940826416 0.76947957277298 2.14947962760925 5.64947938919067 -9999 -9999 -9999 -9999 -9999 -9999 -9999 -9999 -9999 -9999 -9999 -9999 -9999 -9999 -9999 -9999 -9999 -9999
2855.88647460938 2902.646484375 2945.78662109375 2967.7265625 3002.36474609375 3029.54467773438 3038.62475585938 3042.07470703125 3064.04467773438 3077.11474609375 3084.8671875 3088.91723632812 3054.447265625 3055.82739257812 3113.63720703125 3151.4873046875 3181.86059570312 3187.50048828125 3205.37060546875 3209.74047851562 3204.4306640625 3104.810546875 2643.9404296875 1548.12084960938 878.950866699219 784.100830078125 713.160827636719 640.500854492188 456.930847167969 389.415496826172 333.345489501953 285.435485839844 222.045501708984 199.55549621582 175.435501098633 143.935501098633 112.657493591309 93.0475006103516 80.0274963378906 70.3574981689453 63.9374961853027 58.5174980163574 54.2750015258789 50.9750022888184 48.2849998474121 45.6450004577637 43.2350006103516 40.185001373291 35.1424980163574 33.8224983215332 31.3424987792969 28.9224987030029 22.0124988555908 17.752498626709 14.1224975585938 11.9694795608521 5.62947940826416 4.05947971343994 6.90947961807251 2.00947952270508 -9999 -9999 -9999 -9999 -9999 -9999 -9999 -9999 -9999 -9999 -9999 -9999 -9999 -9999 -9999 -9999 -9999 -9999
2862.27856445312 2917.58862304688 2957.32861328125 2974.1884765625 3002.18505859375 3022.125 3032.17504882812 3029.76489257812 3056.69482421875 3068.31494140625 3083.41723632812 3104.87719726562 3108.63720703125 3087.98706054688 3091.1171875 3135.1171875 3182.91259765625 3191.91259765625 3204.3525390625 3211.46240234375 3214.01245117188 3211.2724609375 3137.482421875 2309.1201171875 977.960021972656 854.679992675781 770.700012207031 697.27001953125 490.040008544922 407.995025634766 347.14501953125 298.135040283203 223.565032958984 201.195022583008 173.725021362305 145.32502746582 118.867492675781 99.9874877929688 83.2074890136719 75.5074920654297 65.7574920654297 61.8374900817871 55.8050003051758 53.0250015258789 48.2950019836426 46.5750007629395 43.8850021362305 41.7950019836426 37.4599990844727 35.1699981689453 33.1199989318848 30.4899997711182 23.9999980926514 18.7399997711182 15.6599988937378 13.375 5.13499975204468 5.68499946594238 2.5649995803833 -9999 -9999 -9999 -9999 -9999 -9999 -9999 -9999 -9999 -9999 -9999 -9999 -9999 -9999 -9999 -9999 -9999 -9999 -9999
2874.5185546875 2912.978515625 2937.888671875 2949.11865234375 2958.044921875 2968.044921875 2983.20483398438 2987.07495117188 3021.5849609375 3047.14501953125 3062.91723632812 3085.66723632812 3132.87719726562 3148.96728515625 3156.73706054688 3159.93725585938 3154.12255859375 3185.5224609375 3190.74243164062 3199.70263671875 3218.92260742188 3219.49243164062 3218.26245117188 3163.4599609375 1321.11999511719 1046.75 903.200012207031 810.159973144531 579.289978027344 458.835021972656 383.595031738281 322.1650390625 230.305023193359 205.205032348633 179.255020141602 151.045028686523 125.75749206543 114.167488098145 94.1374893188477 79.4174880981445 74.3274917602539 65.1874923706055 61.4250030517578 59.0750007629395 50.9650001525879 48.4450035095215 46.745002746582 44.7750015258789 41.379997253418 39.7299995422363 36.2000007629395 32.9300003051758 27.4599990844727 22.2999992370605 18.3399982452393 14.6949996948242 10.2349996566772 6.35499954223633 -9999 -9999 -9999 -9999 -9999 -9999 -9999 -9999 -9999 -9999 -9999 -9999 -9999 -9999 -9999 -9999 -9999 -9999 -9999 -9999
2831.25854492188 2854.49853515625 2881.82861328125 2900.67846679688 2928.17504882812 2949.625 2967.95483398438 2983.09497070312 3009.44482421875 3068.13500976562 3083.38720703125 3098.01708984375 3132.68725585938 3168.05712890625 3185.01708984375 3189.6171875 3181.67260742188 3193.50244140625 3202.86254882812 3216.80249023438 3238.09252929688 3239.72241210938 3237.70263671875 3235.73999023438 1920.21997070312 1193.34997558594 997.760009765625 884.960021972656 658.070007324219 517.325012207031 421.965026855469 339.135040283203 233.775024414062 207.185028076172 177.955032348633 158.315032958984 131.397491455078 121.51749420166 102.337493896484 82.7174911499023 76.2874908447266 68.927490234375 64.7249984741211 60.7150001525879 51.9850006103516 49.6650009155273 48.1450004577637 46.5050010681152 43.6499977111816 40.1499977111816 37.3099975585938 34.9500007629395 28.0999984741211 24.2299995422363 20.8799991607666 16.5349998474121 12.2849998474121 10.6949996948242 5.36499977111816 -9999 -9999 -9999 -9999 -9999 -9999 -9999 -9999 -9999 -9999 -9999 -9999 -9999 -9999 -9999 -9999 -9999 -9999 -9999
2811.42846679688 2833.30859375 2862.66870117188 2889.04858398438 2938.44482421875 2957.14501953125 2968.32495117188 2982.53491210938 3002.56494140625 3057.51489257812 3077.54711914062 3090.97705078125 3124.81713867188 3156.08715820312 3181.91723632812 3195.1171875 3213.61254882812 3190.79248046875 3212.54248046875 3211.67260742188 3244.32250976562 3240.32250976562 3239.00244140625 3238.93994140625 2262.40991210938 1309.61999511719 1103.69995117188 967.159973144531 733.809997558594 568.745056152344 452.705017089844 354.6650390625 236.035034179688 208.105026245117 175.765029907227 164.925033569336 140.917495727539 127.967491149902 112.34748840332 94.4174880981445 79.1874923706055 72.2874908447266 68.7050018310547 62.9850006103516 53.4250030517578 50.9850006103516 50.2050018310547 48.0050010681152 44.9199981689453 41.8499984741211 39.3499984741211 36.2199974060059 29.3399982452393 25.8599987030029 23.1999988555908 18.9449996948242 13.6949996948242 11.9249992370605 10.0049991607666 2.29499959945679 -9999 -9999 -9999 -9999 -9999 -9999 -9999 -9999 -9999 -9999 -9999 -9999 -9999 -9999 -9999 -9999 -9999 -9999
2828.25854492188 2852.228515625 2881.04858398438 2907.55859375 2948.84497070312 2962.43505859375 2966.35498046875 2978.46484375 3004.47485351562 3042.81494140625 3076.81713867188 3088.39721679688 3126.46728515625 3144.70727539062 3179.62719726562 3198.58715820312 3213.0625 3221.04248046875 3217.79248046875 3219.6025390625 3250.33251953125 3248.25244140625 3242.5224609375 3244.48999023438 2901.30004882812 1691.68005371094 1246.18005371094 1071.23999023438 809.719970703125 625.265014648438 480.715026855469 370.155029296875 238.565032958984 210.195022583008 188.385025024414 171.385025024414 147.237487792969 133.887496948242 118.727493286133 102.617492675781 80.5974884033203 76.2874908447266 71.0550003051758 64.9350051879883 54.1050033569336 52.8250007629395 51.7350006103516 50.2050018310547 45.3299980163574 43.5799980163574 40.6499977111816 37.6399993896484 31.0699996948242 27.4699993133545 24.8399982452393 21.0550003051758 15.8449993133545 13.1849994659424 11.2349996566772 8.47499942779541 -9999 -9999 -9999 -9999 -9999 -9999 -9999 -9999 -9999 -9999 -9999 -9999 -9999 -9999 -9999 -9999 -9999 -9999
2875.82861328125 2894.28857421875 2916.55859375 2935.14868164062 2954.794921875 2961.49487304688 2977.19482421875 3000.27490234375 3031.28491210938 3035.96484375 3068.2470703125 3083.8271484375 3138.38720703125 3171.88720703125 3180.47705078125 3183.30712890625 3208.71240234375 3213.4326171875 3222.0625 3231.70263671875 3231.69262695312 3239.04248046875 3236.04248046875 3249.53002929688 3260.75 3255.71997070312 2710.419921875 1455.06994628906 972.369995117188 792.465026855469 561.515014648438 401.595031738281 237.275024414062 216.805023193359 197.125030517578 179.295028686523 152.857498168945 139.327484130859 131.977493286133 119.897491455078 88.4974899291992 81.6574935913086 75.7050018310547 69.6850051879883 56.7850036621094 57.6550025939941 54.8650016784668 52.6750030517578 46.8699989318848 43.7199974060059 42.2399978637695 39.9799995422363 35.2199974060059 31.5499992370605 28.3699989318848 26.8549995422363 21.7950000762939 19.0949993133545 14.9649991989136 12.5649995803833 -9999 -9999 -9999 -9999 -9999 -9999 -9999 -9999 -9999 -9999 -9999 -9999 -9999 -9999 -9999 -9999 -9999 -9999
2872.86767578125 2873.31762695312 2889.09765625 2915.6474609375 2939.9951171875 2949.01513671875 2969.875 2994.76513671875 3032.11499023438 3035.9951171875 3063.6650390625 3083.125 3146.51489257812 3162.32495117188 3180.15502929688 3181.39501953125 3198.59008789062 3213.23022460938 3219.64013671875 3225.91015625 3230.07006835938 3244.75024414062 3241.82006835938 3235.89477539062 3267.24462890625 3268.46484375 3145.3447265625 1874.11474609375 1110.11474609375 903.387512207031 637.087524414062 424.587524414062 240.477523803711 221.917526245117 204.997512817383 184.107513427734 158.285003662109 146.315002441406 136.255004882812 123.445007324219 95.3750076293945 85.7050094604492 77.8899993896484 72.3499984741211 58.7999954223633 59.0199966430664 56.9699974060059 53.5999946594238 47.1875 45.4274978637695 43.2275009155273 41.2075004577637 37.0874977111816 34.1375007629395 30.0275001525879 28.8225002288818 22.9225006103516 20.8125 17.1825008392334 13.5525007247925 3.60250067710876 -9999 -9999 -9999 -9999 -9999 -9999 -9999 -9999 -9999 -9999 -9999 -9999 -9999 -9999 -9999 -9999 -9999
2875.36767578125 2874.53759765625 2870.9775390625 2884.267578125 2915.65502929688 2942.4951171875 2967.7451171875 2987.17504882812 3028.13500976562 3054.71508789062 3072.67504882812 3109.01489257812 3151.1650390625 3165.794921875 3176.625 3188.52490234375 3193.38012695312 3203.84008789062 3217.82006835938 3225.8701171875 3237.61010742188 3240.90014648438 3253.69018554688 3242.68481445312 3268.11474609375 3271.89477539062 3274.2646484375 2803.89477539062 1342.0546875 1066.57751464844 759.267517089844 459.387512207031 248.337524414062 224.697525024414 208.467514038086 189.427520751953 160.975006103516 153.065002441406 142.46501159668 128.495010375977 98.6550064086914 87.0650100708008 81.1699981689453 74.879997253418 60.4899940490723 61.8399963378906 58.1899948120117 55.4499969482422 49.6575012207031 46.747501373291 45.0774993896484 42.7574996948242 37.5974998474121 34.497501373291 31.8474998474121 29.4925003051758 24.5325012207031 22.5025005340576 19.292501449585 16.1525001525879 9.6825008392334 -9999 -9999 -9999 -9999 -9999 -9999 -9999 -9999 -9999 -9999 -9999 -9999 -9999 -9999 -9999 -9999 -9999
2858.59765625 2856.1875 2867.4375 2862.84765625 2886.17504882812 2934.64501953125 2963.38500976562 2995.1650390625 3071.15502929688 3096.44506835938 3096.63500976562 3138.40502929688 3141.98486328125 3159.705078125 3183.46508789062 3205.90502929688 3205.50024414062 3205.73022460938 3218.26025390625 3228.44018554688 3239.7900390625 3243.38012695312 3248.7900390625 3261.37475585938 3249.95483398438 3275.29467773438 3280.35473632812 3252.884765625 1713.68469238281 1397.05749511719 1040.33752441406 542.417541503906 258.137512207031 232.20751953125 214.297515869141 192.187515258789 164.615005493164 158.605010986328 144.955001831055 132.015014648438 101.965003967285 86.9450073242188 83.7399978637695 76.859992980957 63.6499938964844 62.0399971008301 58.9799957275391 56.2799949645996 51.2775001525879 47.0874977111816 45.6974983215332 44.1974983215332 38.4174995422363 35.3875007629395 32.9874992370605 30.6925010681152 25.622501373291 23.8625011444092 20.9425010681152 18.2725009918213 11.8225011825562 6.95229387283325 -9999 -9999 2.32229399681091 -9999 -9999 -9999 -9999 -9999 -9999 -9999 -9999 -9999 -9999 -9999 -9999 -9999
2812.1875 2808.8974609375 2831.77758789062 2853.52758789062 2871.2451171875 2894.72509765625 2928.955078125 2988.28515625 3087.13500976562 3115.48510742188 3115.26489257812 3144.125 3170.99487304688 3180.44506835938 3172.49487304688 3170.81494140625 3198.09008789062 3208.7900390625 3219.080078125 3224.5302734375 3239.93017578125 3253.41015625 3253.1201171875 3251.56469726562 3269.7646484375 3254.23461914062 3275.6748046875 3289.90478515625 3289.81469726562 3030.6875 2084.44750976562 1156.40747070312 278.027526855469 245.067520141602 215.867523193359 198.367523193359 181.955001831055 170.335006713867 156.455001831055 142.30500793457 120.585006713867 104.005004882812 88.3099975585938 84.629997253418 71.609992980957 67.5999984741211 62.2599945068359 59.0299949645996 53.4775009155273 50.3974990844727 47.9874992370605 44.4375 38.9474983215332 36.1175003051758 33.747501373291 31.8625011444092 26.4025001525879 25.2425003051758 22.9724998474121 20.3225002288818 15.0825004577637 12.6822938919067 8.76229381561279 1.92229402065277 3.86229395866394 -9999 -9999 -9999 -9999 -9999 -9999 -9999 -9999 -9999 -9999 -9999 -9999 -9999
2814.77758789062 2820.66748046875 2841.4775390625 2860.6474609375 2876.0849609375 2905.19506835938 2930.05493164062 2968.96508789062 3083.69506835938 3112.80493164062 3121.96508789062 3139.34497070312 3147.69506835938 3160.18505859375 3169.0048828125 3171.294921875 3203.4501953125 3216.2802734375 3220.5302734375 3219.080078125 3238.46020507812 3246.02026367188 3254.91015625 3253.44482421875 3263.68481445312 3275.58471679688 3262.61474609375 3286.0546875 3298.60473632812 3284.1875 2295.50756835938 1069.17749023438 291.727508544922 249.797515869141 213.057525634766 196.147521972656 189.875 173.695007324219 160.105010986328 147.265014648438 128.115005493164 116.30500793457 101.099998474121 88.3299942016602 74.4599990844727 67.4299926757812 63.3099975585938 59.2199974060059 52.6474990844727 52.4874992370605 47.8875007629395 44.5275001525879 38.8675003051758 36.6575012207031 34.2975006103516 31.8625011444092 28.1825008392334 25.7625007629395 23.5825004577637 21.0325012207031 16.2825012207031 13.6622943878174 6.97229385375977 2.76229405403137 1.36229395866394 -9999 -9999 -9999 -9999 -9999 -9999 -9999 -9999 -9999 -9999 -9999 -9999 -9999
2848.19750976562 2858.62768554688 2875.267578125 2900.4375 2933.7451171875 2947.27514648438 2968.375 3000.89501953125 3078.98510742188 3098.72509765625 3109.36499023438 3123.8349609375 3152.92504882812 3166.11499023438 3170.92504882812 3173.48486328125 3195.5400390625 3206.8701171875 3212.07006835938 3217.91015625 3234.43017578125 3239.41015625 3245.16015625 3257.04467773438 3259.5546875 3277.7646484375 3284.15478515625 3287.3046875 3295.07470703125 3291.20751953125 2393.96752929688 1157.84753417969 310.237518310547 255.027526855469 215.377517700195 203.417526245117 192.335006713867 179.345001220703 163.705001831055 149.495010375977 134.385009765625 122.085006713867 108.099998474121 93.0799942016602 78.5099945068359 67.8699951171875 62.819995880127 59.5299949645996 54.6175003051758 51.8474998474121 46.8074989318848 45.2075004577637 40.247501373291 38.2174987792969 34.3274993896484 32.9225006103516 28.4525012969971 26.1725006103516 23.9425010681152 21.8625011444092 16.9425010681152 14.002293586731 9.81229400634766 3.40229392051697 -9999 -9999 -9999 -9999 -9999 -9999 -9999 -9999 -9999 -9999 -9999 -9999 -9999 -9999
2885.40747070312 2888.25756835938 2920.71752929688 2932.517578125 2952.77514648438 2969.96508789062 2997.78515625 3030.64501953125 3089.61499023438 3096.25512695312 3098.955078125 3117.5048828125 3153.59497070312 3167.26489257812 3178.17504882812 3184.875 3191.91015625 3206.94018554688 3217.1201171875 3225.82006835938 3232.57006835938 3233.14013671875 3240.73022460938 3250.40478515625 3266.47485351562 3266.65478515625 3290.19482421875 3293.00463867188 3295.33471679688 3186.7275390625 2103.74755859375 1191.09753417969 335.877532958984 261.907531738281 221.447525024414 206.007522583008 195.795013427734 184.485000610352 169.355010986328 153.675003051758 139.155014038086 127.275009155273 119.729995727539 102.299995422363 80.3999938964844 70.0999984741211 64.109992980957 61.3099975585938 55.4174995422363 50.7874984741211 47.9375 45.9874992370605 41.0774993896484 38.3974990844727 35.3074989318848 33.7625007629395 27.8025016784668 26.6325016021729 24.3425006866455 22.1925010681152 18.2224998474121 15.5622940063477 10.7322940826416 6.16229391098022 -9999 -9999 -9999 -9999 -9999 -9999 -9999 -9999 -9999 -9999 -9999 -9999 -9999 -9999
2967.857421875 2973.81762695312 2978.82763671875 2993.88745117188 3013.42504882812 3009.52490234375 3004.11499023438 3037.5849609375 3097.40502929688 3109.0849609375 3129.17749023438 3145.9375 3156.54760742188 3177.86743164062 3187.08740234375 3195.24755859375 3196.48486328125 3193.60473632812 3193.12475585938 3196.45483398438 3213.47485351562 3222.39477539062 3236.18481445312 3245.53247070312 3272.88256835938 3283.142578125 3288.30249023438 3295.95239257812 3297.79248046875 3295.00512695312 2744.705078125 1657.78503417969 445.434997558594 281.445007324219 226.30500793457 212.395004272461 200.482498168945 190.372497558594 178.672500610352 155.282501220703 146.662506103516 134.382507324219 124.057502746582 113.097496032715 83.7174987792969 74.9475021362305 70.0475006103516 63.8574981689453 55.5249977111816 54.004997253418 52.3449974060059 50.1349983215332 42.8050003051758 39.4749984741211 37.5449981689453 35.502498626709 29.8924980163574 28.1324977874756 26.692497253418 24.7124977111816 19.4324970245361 15.4578056335449 12.8178052902222 10.537805557251 1.97780537605286 3.11780524253845 3.69780540466309 0.897805333137512 -9999 -9999 -9999 -9999 -9999 -9999 -9999 -9999 -9999 -9999
2972.95751953125 2985.17749023438 2993.8974609375 3007.78759765625 3017.02490234375 3022.794921875 3025.17504882812 3010.0849609375 3078.86499023438 3097.30493164062 3110.79760742188 3129.32763671875 3157.1875 3158.92749023438 3173.9775390625 3189.28759765625 3190.14477539062 3188.08471679688 3193.08471679688 3209.07470703125 3232.40478515625 3237.90478515625 3247.5146484375 3250.8525390625 3269.61254882812 3279.72241210938 3287.29248046875 3297.62255859375 3293.47241210938 3234.68505859375 2905.51489257812 1768.0849609375 534.585021972656 299.625 230.255004882812 215.145004272461 204.3125 193.592498779297 180.182510375977 169.452499389648 136.752502441406 134.142501831055 126.627502441406 114.507499694824 84.9274978637695 75.5074996948242 68.9174957275391 65.5274963378906 57.1649971008301 55.4149971008301 53.9149971008301 50.4349975585938 43.564998626709 39.7150001525879 39.004997253418 36.0224990844727 29.7924976348877 29.3724975585938 28.1324977874756 25.4624977111816 18.2024974822998 15.1578054428101 14.2178049087524 12.077805519104 8.58780574798584 8.30780506134033 7.98780536651611 5.52780532836914 -9999 -9999 -9999 -9999 -9999 -9999 -9999 -9999 -9999 -9999
3044.66748046875 3050.09741210938 3058.517578125 3074.17749023438 3076.11499023438 3072.13500976562 3071.17504882812 3057.0849609375 3057.72485351562 3081.7548828125 3085.27758789062 3107.81762695312 3129.81762695312 3147.77758789062 3150.15747070312 3147.5576171875 3170.72485351562 3180.97485351562 3197.134765625 3208.52465820312 3230.65478515625 3242.87475585938 3252.7646484375 3259.09252929688 3273.32250976562 3282.07250976562 3288.40258789062 3293.32250976562 3298.6923828125 2642.34497070312 2034.31506347656 1591.65502929688 654.804992675781 327.635009765625 237.705017089844 225.285003662109 206.772506713867 195.102508544922 183.002502441406 171.592498779297 148.442504882812 133.622497558594 125.707496643066 115.817497253418 84.6674957275391 74.9674987792969 67.5875015258789 64.4475021362305 58.4849967956543 55.4249992370605 53.4650001525879 50.5550003051758 45.0349998474121 41.8649978637695 39.7150001525879 36.192497253418 31.2524967193604 30.1124973297119 28.1124973297119 25.2124977111816 18.7024974822998 16.4578056335449 14.867805480957 13.1778049468994 11.7378053665161 11.5178050994873 10.0178050994873 8.27780532836914 -9999 -9999 -9999 -9999 -9999 -9999 -9999 -9999 -9999 -9999
3073.15747070312 3080.96752929688 3092.857421875 3100.61743164062 3105.5048828125 3103.32495117188 3102.455078125 3094.43505859375 3041.05493164062 3030.52490234375 3067.88745117188 3090.07763671875 3119.13745117188 3126.1875 3139.8076171875 3174.267578125 3186.56469726562 3206.69482421875 3219.73486328125 3230.54467773438 3247.97485351562 3258.03466796875 3269.23486328125 3276.21240234375 3287.732421875 3289.87255859375 3293.71240234375 3303.21240234375 3314.99243164062 3294.43505859375 2154.90502929688 1586.375 791.734985351562 373.515014648438 248.865005493164 222.235015869141 208.432510375977 197.182510375977 185.542495727539 172.052505493164 149.002502441406 139.892501831055 129.907501220703 116.337501525879 86.9375 75.1774978637695 70.2774963378906 64.4574966430664 58.9049987792969 56.5849990844727 54.5749969482422 51.3050003051758 46.1949996948242 43.004997253418 39.9049987792969 37.5824966430664 33.5524978637695 30.9724979400635 28.3224964141846 25.442497253418 20.5924968719482 18.7078056335449 16.8378047943115 16.0578060150146 14.827805519104 13.4678049087524 11.2978057861328 9.00780487060547 -9999 -9999 -9999 -9999 -9999 -9999 -9999 -9999 -9999 -9999
3111.7275390625 3120.17749023438 3132.0576171875 3136.4775390625 3152.15502929688 3155.36499023438 3155.544921875 3152.294921875 3152.5849609375 3148.27490234375 3148.21752929688 3147.31762695312 3151.49755859375 3148.67749023438 3152.6875 3190.267578125 3229.7548828125 3244.4248046875 3240.08471679688 3239.65478515625 3271.40478515625 3275.44482421875 3280.884765625 3276.63256835938 3293.18237304688 3294.892578125 3301.5625 3311.8125 3316.642578125 3315.68505859375 3304.10498046875 2479.9150390625 1129.1650390625 535.554992675781 306.14501953125 234.96501159668 214.002502441406 202.152496337891 190.152496337891 176.642501831055 152.972503662109 143.572509765625 133.327499389648 119.637496948242 93.9974975585938 77.8574981689453 71.7275009155273 68.0074996948242 60.3349990844727 58.7049980163574 55.1849975585938 53.8549995422363 49.0550003051758 45.1649971008301 41.3449974060059 40.5224990844727 34.8924980163574 32.8224983215332 30.3424968719482 26.6724967956543 23.7424964904785 22.9178047180176 21.037805557251 19.6778049468994 14.9078054428101 12.9778051376343 11.2178049087524 9.31780529022217 -9999 -9999 -9999 -9999 -9999 -9999 -9999 -9999 -9999 -9999
3139.77758789062 3143.3974609375 3154.08764648438 3170.46752929688 3177.55493164062 3184.44506835938 3183.10498046875 3175.40502929688 3189.0849609375 3183.0849609375 3179.66748046875 3181.3076171875 3169.06762695312 3148.4775390625 3150.31762695312 3188.02758789062 3227.22485351562 3238.6748046875 3255.7646484375 3264.10473632812 3261.8046875 3267.08471679688 3276.73486328125 3278.09252929688 3291.09252929688 3291.51245117188 3296.91235351562 3307.42236328125 3314.79248046875 3319.13500976562 3308.77490234375 2499.69506835938 1124.20495605469 609.285034179688 347.845001220703 241.295013427734 213.072509765625 203.662506103516 188.842498779297 176.972503662109 152.74250793457 141.902496337891 132.647506713867 118.117500305176 95.4974975585938 80.9174957275391 70.2275009155273 69.3375015258789 61.064998626709 58.3449974060059 56.2449989318848 54.4349975585938 49.5749969482422 45.6949996948242 43.4849967956543 42.442497253418 36.5624961853027 34.4724960327148 31.7924976348877 29.8924980163574 25.8524971008301 24.0278053283691 22.0478057861328 19.6678047180176 16.2678050994873 14.2278051376343 12.3078050613403 10.2478055953979 2.27090716362 -9999 -9999 -9999 -9999 -9999 -9999 -9999 -9999 -9999
3166.46997070312 3174.0400390625 3190.40014648438 3200.17993164062 3208.60986328125 3211.4599609375 3209.92993164062 3208.11987304688 3219.47998046875 3208.22998046875 3211.39013671875 3203.16015625 3165.00024414062 3160.8701171875 3156.5302734375 3185.79028320312 3220.07250976562 3237.36254882812 3252.29248046875 3260.67260742188 3269.232421875 3257.3125 3266.91259765625 3280.56298828125 3284.22290039062 3292.18286132812 3293.24291992188 3300.26293945312 3315.02294921875 3316.2373046875 3315.88720703125 2949.63720703125 1136.76733398438 713.21728515625 398.747283935547 258.617309570312 214.384994506836 203.164993286133 184.53498840332 175.314987182617 153.904983520508 143.384994506836 137.035003662109 121.485000610352 93.9050064086914 80.5850067138672 70.1650009155273 70.3050003051758 62.3099937438965 58.6999931335449 56.9499931335449 55.1999931335449 49.7499961853027 47.0799942016602 45.069995880127 43.6124954223633 37.5224952697754 35.6624946594238 34.7424964904785 32.3024940490723 27.3624954223633 25.3899993896484 23.5599994659424 21.2299995422363 17.8400001525879 15.6000003814697 13.5600004196167 11.3999996185303 4.69499969482422 0.244999930262566 -9999 -9999 -9999 -9999 -9999 -9999 -9999 -9999
3205.02001953125 3204.75 3216.40014648438 3221.30004882812 3242.39990234375 3237.6298828125 3223.81982421875 3217.97998046875 3234.28002929688 3228.46997070312 3220.77026367188 3221.16015625 3186.68017578125 3174.27026367188 3162.56005859375 3169.7802734375 3217.6826171875 3228.4326171875 3237.8125 3241.53247070312 3252.34252929688 3272.38256835938 3258.642578125 3269.44287109375 3273.10302734375 3291.8330078125 3295.38305664062 3300.80297851562 3314.0830078125 3322.05737304688 3318.0673828125 2872.52734375 1139.87731933594 797.127319335938 475.357299804688 290.997283935547 213.114990234375 201.924987792969 179.574981689453 168.60498046875 154.804992675781 146.174987792969 135.285003662109 124.215003967285 94.7050018310547 83.2150039672852 70.1750030517578 70.7850036621094 63.4799957275391 61.2299957275391 58.5199928283691 56.609992980957 50.6399955749512 48.6499938964844 46.1199951171875 43.8924942016602 38.1124954223633 36.9224967956543 35.6824951171875 33.5424957275391 28.5124950408936 26.4099998474121 24.2199993133545 22.2199993133545 18.5300006866455 16.5 14.2700004577637 12.3800001144409 7.46500015258789 0.864999949932098 1.02499997615814 0.654999911785126 -9999 -9999 -9999 -9999 -9999 -9999
3252.419921875 3257.36010742188 3265.59008789062 3275.13012695312 3291.56982421875 3279.419921875 3268.11987304688 3259.83984375 3255.78002929688 3254.65991210938 3252.10009765625 3250.80029296875 3213.65014648438 3187.09008789062 3203.6201171875 3173.92016601562 3197.42260742188 3212.97241210938 3216.41259765625 3227.59252929688 3240.37255859375 3247.84252929688 3253.91259765625 3274.89282226562 3284.04296875 3291.53295898438 3297.712890625 3304.59301757812 3329.89282226562 3336.80737304688 3325.18725585938 2435.8173828125 1265.71728515625 956.267272949219 614.457275390625 382.867309570312 210.244995117188 186.754989624023 166.394989013672 166.204986572266 151.114990234375 144.204986572266 136.214996337891 124.145004272461 101.04500579834 90.8650054931641 76.6850051879883 71.9250030517578 64.5199966430664 62.5999946594238 59.2499961853027 57.859992980957 52.9499931335449 50.919994354248 48.069995880127 46.1824951171875 39.3724937438965 37.1624946594238 35.9024963378906 35.5224952697754 29.5124950408936 27.3600006103516 25.7000007629395 23.2999992370605 19.7900009155273 18.4200000762939 15.5299997329712 13.8900003433228 9.15499973297119 5.41499996185303 3.7649998664856 4.11499977111816 2.47499990463257 1.06499993801117 -9999 -9999 -9999 -9999
3286.46997070312 3290.3701171875 3297.67993164062 3303.82006835938 3306.25 3301.51000976562 3289.58984375 3285.55981445312 3273.4599609375 3270.2099609375 3262.71020507812 3256.01025390625 3221.52026367188 3190.5302734375 3217.65014648438 3195.32006835938 3199.88256835938 3213.08251953125 3226.91259765625 3231.232421875 3245.11254882812 3258.09252929688 3268.40258789062 3274.76293945312 3298.39282226562 3295.31298828125 3300.77294921875 3311.22290039062 3332.05297851562 3330.09741210938 3331.4072265625 2601.197265625 1236.26733398438 988.847290039062 711.96728515625 441.877288818359 215.344985961914 181.60498046875 165.394989013672 165.584991455078 151.224990844727 143.494995117188 135.395004272461 124.54500579834 100.905006408691 90.3450012207031 77.6450042724609 73.0550003051758 65.3399963378906 62.4899940490723 59.6299934387207 58.7899932861328 55.0999946594238 52.0299949645996 48.9999961853027 47.0324935913086 39.7924957275391 35.9124946594238 34.8524971008301 35.1124954223633 29.6524963378906 26.8700008392334 24.9099998474121 22.6599998474121 19.5599994659424 17.3400001525879 15.6300001144409 14.0600004196167 9.47500038146973 7.125 5.63499975204468 5.25500011444092 3.6949999332428 1.93499994277954 0.37580332159996 -9999 -9999 -9999
3300.43994140625 3306.17993164062 3321.47998046875 3332.26000976562 3334.19995117188 3326.71997070312 3315.06982421875 3310.75 3287.88989257812 3281.19995117188 3274.96020507812 3265.1201171875 3233.31005859375 3214.0302734375 3228.39013671875 3204.02026367188 3209.51245117188 3221.12255859375 3230.79248046875 3240.36254882812 3256.8525390625 3263.66259765625 3268.24243164062 3276.18286132812 3280.90283203125 3300.79296875 3313.16284179688 3307.53295898438 3329.0830078125 3338.50732421875 3346.0673828125 2886.43725585938 1390.57727050781 1248.72729492188 928.537292480469 545.75732421875 232.10498046875 181.974990844727 162.164993286133 166.654983520508 151.084991455078 142.874984741211 133.385009765625 123.995002746582 100.065002441406 89.2850036621094 77.3650054931641 72.1550064086914 66.1899948120117 62.1199951171875 60.0199928283691 59.3499946594238 55.4799957275391 52.109992980957 49.859992980957 48.0124969482422 40.0424957275391 36.5024948120117 34.4924964904785 33.4524955749512 30.0124950408936 27.3899993896484 25.8099994659424 23.9699993133545 19.7099990844727 18.1299991607666 16.7700004577637 13.6800003051758 10.0749998092651 8.25500011444092 7.29500007629395 6.63499975204468 5.125 3.625 2.02580332756042 -9999 -9999 -9999
3327.28002929688 3327.76000976562 3338.88012695312 3351 3356.98999023438 3349.669921875 3346.25 3330.21997070312 3303.42993164062 3295.53002929688 3284.09008789062 3272.01025390625 3237.29028320312 3228.19018554688 3229.10009765625 3218.40014648438 3217.15258789062 3224.16259765625 3233.54248046875 3244.482421875 3259.17260742188 3262.8125 3269.30249023438 3277.18286132812 3284.51293945312 3290.2529296875 3308.34301757812 3326.16284179688 3327.40283203125 3342.47729492188 3351.17724609375 3349.12719726562 1769.26733398438 1533.39733886719 1104.43725585938 676.407287597656 257.994995117188 187.964981079102 165.084991455078 162.704986572266 149.254989624023 143.734985351562 133.764999389648 123.415000915527 99.3550033569336 85.9050064086914 76.9250030517578 73.0450057983398 66.4099960327148 62.3999938964844 60.5899963378906 59.8099937438965 55.2499961853027 52.609992980957 51.2399940490723 48.8624954223633 41.1524963378906 36.732494354248 34.5424957275391 33.0024948120117 30.6524963378906 29.1599998474121 26.7000007629395 25.8299999237061 20.9200000762939 18.7399997711182 17.4699993133545 14.5200004577637 10.5249996185303 9.00500011444092 8.125 7.64499998092651 6.21500015258789 5.06500005722046 3.45580339431763 0.875803291797638 0.135803312063217 -9999
3374.53759765625 3372.77758789062 3375.75756835938 3374.99755859375 3376.6650390625 3364.52490234375 3344.294921875 3324.15502929688 3304.92504882812 3294.4951171875 3285.6376953125 3278.017578125 3268.64770507812 3250.91772460938 3235.57763671875 3232.35766601562 3244.85229492188 3232.90234375 3237.9423828125 3246.97241210938 3262.22241210938 3272.732421875 3284.3623046875 3293.107421875 3291.94750976562 3301.44750976562 3309.77758789062 3323.53759765625 3329.65747070312 3347.802734375 3352.82275390625 3351.6328125 2475.62280273438 1886.31274414062 1400.83276367188 1009.302734375 341.217742919922 202.967758178711 158.547760009766 159.297760009766 146.69775390625 142.097747802734 132.515014648438 123.055015563965 100.645011901855 88.005012512207 76.1550140380859 74.2450180053711 68.8525009155273 64.9524993896484 61.5224990844727 60.252498626709 57.2224998474121 54.5625 51.3524971008301 49.6399993896484 43.439998626709 37.5999984741211 35.2399978637695 32.629997253418 30.2199974060059 29.0675010681152 27.9675006866455 25.9475021362305 21.4875011444092 19.0475006103516 17.5575008392334 14.9475011825562 11.8975009918213 10.8975009918213 9.8675012588501 8.49750137329102 7.3675012588501 6.53750133514404 5.24761056900024 3.47761058807373 -9999 -9999
3384.56762695312 3382.52758789062 3382.4775390625 3379.82763671875 3372.22509765625 3350.02490234375 3326.77490234375 3304.92504882812 3293.40502929688 3280.625 3265.54760742188 3255.94775390625 3260.3876953125 3256.8076171875 3254.24755859375 3255.4677734375 3261.28247070312 3239.66235351562 3239.60229492188 3246.53247070312 3261.16235351562 3271.15234375 3276.03247070312 3290.3076171875 3297.0576171875 3294.107421875 3316.4775390625 3327.41748046875 3327.86743164062 3340.36279296875 3356.87280273438 3368.78271484375 3089.75268554688 2422.10278320312 1761.20275878906 1220.87268066406 395.147766113281 267.647766113281 174.647750854492 157.247756958008 144.017761230469 137.517761230469 130.245010375977 122.47501373291 100.875015258789 87.5850143432617 77.1550140380859 74.0850143432617 68.9925003051758 64.6624984741211 60.8325004577637 61.2425003051758 56.6424980163574 54.6424980163574 52.442497253418 49.5399971008301 43.4899978637695 38.4499969482422 37.2799987792969 33.2499961853027 29.7499980926514 27.1575012207031 26.5075016021729 25.2875022888184 21.8975009918213 19.1375007629395 17.4475021362305 15.5675010681152 12.7575016021729 11.8875017166138 10.537501335144 9.13750171661377 8.02750110626221 6.80750131607056 5.44761037826538 3.77761054039001 0.0276105497032404 -9999
3388.53759765625 3383.36767578125 3382.74755859375 3378.31762695312 3364.26489257812 3339.76489257812 3327.544921875 3310.94506835938 3293.84497070312 3288.2451171875 3286.23754882812 3289.2177734375 3265.86767578125 3258.8876953125 3251.927734375 3276.59765625 3275.58251953125 3264.76245117188 3265.07250976562 3267.8125 3268.80249023438 3274.0625 3278.37231445312 3291.99755859375 3312.45751953125 3315.86743164062 3330.33740234375 3327.95751953125 3334.66748046875 3342.2626953125 3353.37280273438 3356.47265625 3347.77270507812 3007.41259765625 2144.70263671875 1446.12268066406 454.867767333984 325.457763671875 206.147750854492 156.167755126953 142.677749633789 134.907760620117 127.915016174316 121.555015563965 101.105010986328 86.8050155639648 75.7050170898438 72.4450149536133 68.1324996948242 64.5524978637695 62.0625 60.6725006103516 56.9324989318848 53.8224983215332 51.9724998474121 49.8299980163574 43.3299980163574 40.4299964904785 37.6599998474121 35.3499984741211 30.629997253418 27.8675022125244 27.2675018310547 26.1175022125244 21.6475009918213 18.5375022888184 17.3675022125244 16.0475006103516 13.497501373291 12.5875015258789 11.4675016403198 9.77750110626221 7.82750129699707 6.82750129699707 5.62761068344116 3.71761059761047 -9999 0.647610545158386
3387.73754882812 3383.4375 3382.49755859375 3376.1474609375 3361.64501953125 3342.125 3332.59497070312 3325.57495117188 3312.705078125 3310.76489257812 3307.03759765625 3292.94775390625 3276.19775390625 3282.23754882812 3267.02758789062 3279.517578125 3280.08251953125 3277.85229492188 3276.00244140625 3286.00244140625 3295.70239257812 3293.97241210938 3296.38232421875 3306.77758789062 3315.75756835938 3330.15747070312 3331.38745117188 3332.11743164062 3342.52758789062 3348.57275390625 3358.33276367188 3365.35278320312 3359.70263671875 2711.65283203125 1895.33276367188 1465.18273925781 556.44775390625 369.067749023438 239.597747802734 159.267761230469 141.927749633789 134.337753295898 125.985015869141 121.565017700195 101.395011901855 86.1050109863281 73.7850112915039 74.275016784668 69.3424987792969 65.5625 64.0325012207031 59.192497253418 58.0625 55.3424987792969 51.5524978637695 48.8899993896484 41.4299964904785 39.4199981689453 37.4299964904785 36.189998626709 31.4799976348877 29.7575016021729 28.5075016021729 26.2975006103516 21.3675022125244 18.9775009155273 17.3275012969971 16.2075004577637 14.1975011825562 13.5875015258789 11.9675016403198 10.037501335144 7.41750144958496 6.77750158309937 5.67761039733887 3.8276104927063 -9999 -9999
3389.71752929688 3381.04760742188 3382.1474609375 3372.63745117188 3365.34497070312 3355.294921875 3348.1650390625 3334.80493164062 3317.69506835938 3313.77490234375 3303.09765625 3296.61767578125 3291.677734375 3291.89770507812 3288.6376953125 3286.08764648438 3284.982421875 3283.05249023438 3283.15234375 3286.97241210938 3292.482421875 3298.232421875 3306.8125 3321.92749023438 3333.78759765625 3333.59741210938 3332.94750976562 3334.83740234375 3355.32739257812 3351.61279296875 3371.2626953125 3377.49267578125 3371.49267578125 2639.64282226562 2411.302734375 2038.00268554688 1131.99780273438 532.297729492188 369.227752685547 249.157760620117 144.057754516602 133.407760620117 125.665016174316 118.895011901855 98.3550109863281 83.3950119018555 74.6350173950195 73.5350112915039 66.9925003051758 65.9324951171875 64.0424957275391 61.3325004577637 57.692497253418 54.0324974060059 51.8724975585938 48.3599967956543 42.6099967956543 40.9599990844727 38.9499969482422 37.439998626709 32.7299995422363 29.7075004577637 27.9675006866455 25.7575016021729 21.0175018310547 19.5975017547607 19.2975006103516 17.497501373291 14.667501449585 12.9875011444092 11.1775016784668 10.0775012969971 8.20750141143799 7.12750148773193 6.26761054992676 4.90761041641235 3.01761054992676 1.9176105260849
3392.60766601562 3387.33764648438 3386.25756835938 3380.92749023438 3368.42504882812 3366.0849609375 3348.544921875 3324.17504882812 3312.6650390625 3305.93505859375 3297.87768554688 3292.93774414062 3293.5576171875 3292.14770507812 3288.8076171875 3297.11767578125 3287.37231445312 3287.04248046875 3287.1123046875 3288.8125 3291.38232421875 3294.64233398438 3297.482421875 3319.19750976562 3330.99755859375 3342.83740234375 3348.38745117188 3350.03759765625 3359.3173828125 3360.25268554688 3370.89282226562 3375.44262695312 3384.06274414062 3305.82275390625 3202.8828125 2624.87280273438 1413.14770507812 818.077758789062 419.037750244141 323.167755126953 138.687759399414 130.737747192383 126.845016479492 118.065017700195 94.275016784668 82.3650131225586 72.8750152587891 73.1550140380859 67.3624954223633 64.9024963378906 63.5825004577637 61.9624977111816 57.0825004577637 52.4124984741211 50.2124977111816 46.7299995422363 42.2599983215332 39.8899993896484 38.1799964904785 36.5399971008301 31.5999984741211 28.8375015258789 26.497501373291 25.6475009918213 21.8575019836426 20.3575019836426 19.6375007629395 18.7175006866455 15.4775009155273 13.3575010299683 11.0275011062622 9.64750099182129 8.47750091552734 7.56750154495239 6.24761056900024 4.90761041641235 3.63761043548584 2.62761044502258
